2.05262 1.98645 3.62322
1.05981 2.05919 3.54115
2.49992 1.36494 4.2676
2.80698 2.76971 2.87054
4.03777 2.79023 2.89081
2.05278 3.52386 2.08834
2.49992 4.1687 1.46728
1.05968 3.44158 2.16092
4.93447 0.885126 0.986144
5.92803 0.813102 0.91409
4.47982 1.51583 1.61654
4.18572 0.113412 0.215163
2.9549 0.108482 0.2102
4.9481 20.7518 20.8455
4.50663 20.1161 20.2102
5.94048 20.835 20.9288
6.7346 1.98645 3.62322
5.7418 2.05919 3.54114
7.1819 1.36494 4.2676
7.48898 2.76971 2.87054
8.71974 2.79023 2.89081
6.73476 3.52386 2.08834
7.18189 4.16871 1.46728
5.74167 3.44158 2.16092
9.61647 0.885128 0.986147
10.61 0.813104 0.914092
9.16182 1.51583 1.61654
8.86772 0.113412 0.215163
7.63689 0.108482 0.2102
9.63009 20.7518 20.8455
9.18864 20.1161 20.2102
10.6225 20.835 20.9288
11.4166 1.98646 3.62321
10.4238 2.05919 3.54114
11.8639 1.36494 4.2676
12.171 2.76971 2.87054
13.4017 2.79023 2.8908
11.4168 3.52386 2.08834
11.8639 4.16871 1.46728
10.4237 3.44158 2.16093
14.2985 0.885128 0.986147
15.292 0.813107 0.914095
13.8438 1.51583 1.61654
13.5497 0.113412 0.215163
12.3189 0.108482 0.2102
14.3121 20.7518 20.8455
13.8706 20.1161 20.2102
15.3045 20.835 20.9288
16.0986 1.98646 3.62321
15.1058 2.05919 3.54114
16.5459 1.36494 4.2676
16.853 2.76971 2.87054
18.0837 2.79023 2.8908
16.0987 3.52386 2.08835
16.5459 4.16871 1.46728
15.1057 3.44158 2.16092
0.252481 0.885126 0.986144
1.24605 0.813105 0.914093
18.5258 1.51583 1.61654
18.2317 0.113412 0.215163
17.0009 0.108482 0.2102
0.266105 20.7518 20.8455
18.5526 20.1161 20.2102
1.2585 20.835 20.9288
2.05262 7.33738 3.62321
1.0598 7.41013 3.54114
2.49991 6.71587 4.2676
2.80698 8.12064 2.87054
4.03777 8.14115 2.89081
2.05278 8.8748 2.08834
2.49993 9.51964 1.46729
1.05969 8.79252 2.16092
4.93448 6.23607 0.98613
5.92803 6.16403 0.914079
4.47983 6.86677 1.61653
4.18572 5.46435 0.215157
2.9549 5.45942 0.210199
4.94809 4.69905 20.8455
4.50663 4.06331 20.2102
5.94048 4.78217 20.9288
6.7346 7.33738 3.62321
5.74179 7.41013 3.54114
7.18188 6.71587 4.2676
7.48898 8.12064 2.87054
8.71974 8.14115 2.89081
6.73476 8.8748 2.08834
7.1819 9.51964 1.46728
5.74168 8.79252 2.16092
9.61647 6.23607 0.986132
10.61 6.16404 0.914081
9.16183 6.86677 1.61653
8.86772 5.46435 0.215157
7.6369 5.45942 0.210199
9.63009 4.69904 20.8455
9.18863 4.06331 20.2102
10.6225 4.78217 20.9288
11.4166 7.33739 3.62321
10.4238 7.41013 3.54114
11.8639 6.71587 4.2676
12.171 8.12064 2.87054
13.4017 8.14115 2.89081
11.4168 8.8748 2.08835
11.8639 9.51965 1.46728
10.4237 8.79252 2.16093
14.2985 6.23607 0.986133
15.292 6.16404 0.914084
13.8438 6.86677 1.61653
13.5497 5.46435 0.215157
12.3189 5.45942 0.210199
14.3121 4.69904 20.8455
13.8706 4.06331 20.2102
15.3045 4.78217 20.9287
16.0986 7.33739 3.62321
15.1058 7.41013 3.54114
16.5459 6.71587 4.2676
16.853 8.12064 2.87054
18.0837 8.14115 2.89081
16.0988 8.8748 2.08835
16.5459 9.51964 1.46729
15.1057 8.79252 2.16092
0.252485 6.23607 0.98613
1.24606 6.16404 0.914082
18.5258 6.86677 1.61653
18.2317 5.46435 0.215157
17.0009 5.45942 0.210199
0.266101 4.69905 20.8455
18.5526 4.06331 20.2102
1.2585 4.78217 20.9288
2.05262 12.6883 3.62321
1.0598 12.7611 3.54114
2.49991 12.0668 4.26759
2.80698 13.4716 2.87054
4.03777 13.4921 2.89081
2.05279 14.2257 2.08835
2.49993 14.8706 1.4673
1.05969 14.1435 2.16093
4.93448 11.587 0.986127
5.92804 11.515 0.914074
4.47984 12.2177 1.61653
4.18572 10.8153 0.215158
2.9549 10.8104 0.210205
4.94809 10.05 20.8455
4.50662 9.41424 20.2102
5.94047 10.1331 20.9288
6.7346 12.6883 3.62321
5.74179 12.7611 3.54114
7.18188 12.0668 4.2676
7.48899 13.4716 2.87054
8.71975 13.4921 2.89081
6.73477 14.2257 2.08835
7.18191 14.8706 1.4673
5.74168 14.1435 2.16093
9.61648 11.587 0.986129
10.61 11.515 0.914077
9.16184 12.2177 1.61653
8.86772 10.8153 0.215158
7.6369 10.8104 0.210204
9.63008 10.05 20.8455
9.18862 9.41424 20.2102
10.6225 10.1331 20.9287
11.4166 12.6883 3.62321
10.4238 12.7611 3.54114
11.8639 12.0668 4.2676
12.171 13.4716 2.87054
13.4017 13.4921 2.89081
11.4168 14.2257 2.08835
11.8639 14.8706 1.4673
10.4237 14.1435 2.16094
14.2985 11.587 0.98613
15.292 11.515 0.91408
13.8438 12.2177 1.61653
13.5497 10.8153 0.215158
12.3189 10.8104 0.210204
14.3121 10.05 20.8455
13.8706 9.41424 20.2102
15.3045 10.1331 20.9287
16.0986 12.6883 3.62321
15.1058 12.7611 3.54114
16.5459 12.0668 4.2676
16.853 13.4716 2.87054
18.0837 13.4921 2.89081
16.0988 14.2257 2.08836
16.5459 14.8706 1.4673
15.1057 14.1435 2.16093
0.252491 11.587 0.986127
1.24606 11.515 0.914077
18.5258 12.2177 1.61653
18.2317 10.8153 0.215158
17.0009 10.8104 0.210204
0.266096 10.05 20.8455
18.5526 9.41424 20.2102
1.2585 10.1331 20.9287
2.05262 18.0392 3.62321
1.05981 18.112 3.54115
2.49992 17.4177 4.2676
2.80698 18.8225 2.87054
4.03777 18.843 2.89081
2.05278 19.5767 2.08835
2.49992 20.2215 1.46729
1.05969 19.4944 2.16093
4.93448 16.9379 0.986141
5.92803 16.8659 0.914086
4.47983 17.5686 1.61654
4.18572 16.1662 0.215163
2.9549 16.1613 0.210205
4.94809 15.4009 20.8455
4.50662 14.7652 20.2102
5.94048 15.484 20.9288
6.7346 18.0392 3.62321
5.7418 18.112 3.54114
7.1819 17.4177 4.2676
7.48899 18.8225 2.87054
8.71975 18.843 2.89081
6.73476 19.5767 2.08835
7.1819 20.2215 1.46729
5.74168 19.4944 2.16093
9.61647 16.9379 0.986143
10.61 16.8659 0.914088
9.16183 17.5686 1.61654
8.86772 16.1662 0.215163
7.6369 16.1613 0.210205
9.63009 15.4009 20.8455
9.18863 14.7652 20.2102
10.6225 15.484 20.9288
11.4166 18.0392 3.62321
10.4238 18.112 3.54114
11.8639 17.4177 4.2676
12.171 18.8225 2.87054
13.4017 18.843 2.89081
11.4168 19.5767 2.08835
11.8639 20.2215 1.46729
10.4237 19.4944 2.16094
14.2985 16.9379 0.986144
15.292 16.8659 0.914091
13.8438 17.5686 1.61654
13.5497 16.1662 0.215163
12.3189 16.1613 0.210205
14.3121 15.4009 20.8455
13.8706 14.7652 20.2102
15.3045 15.484 20.9288
16.0986 18.0392 3.62321
15.1058 18.112 3.54114
16.5459 17.4177 4.2676
16.853 18.8225 2.87054
18.0837 18.843 2.89081
16.0987 19.5767 2.08836
16.5459 20.2215 1.46729
15.1057 19.4944 2.16093
0.252487 16.9379 0.986141
1.24606 16.8659 0.914089
18.5258 17.5686 1.61654
18.2317 16.1662 0.215163
17.0009 16.1613 0.210205
0.266099 15.4009 20.8455
18.5526 14.7652 20.2102
1.2585 15.484 20.9288
2.05263 1.98646 8.97191
1.05981 2.05919 8.88985
2.49993 1.36495 9.61629
2.80698 2.76971 8.21922
4.03777 2.79023 8.23948
2.05277 3.52386 7.43703
2.49991 4.1687 6.81597
1.05968 3.44158 7.50962
4.93448 0.885111 6.33484
5.92803 0.813091 6.26278
4.47983 1.51582 6.96524
4.18572 0.113406 5.56386
2.9549 0.10848 5.5589
4.94809 20.7518 4.79947
4.50663 20.1161 4.1641
5.94048 20.835 4.88268
6.73461 1.98645 8.97191
5.7418 2.05919 8.88984
7.1819 1.36495 9.6163
7.48898 2.76971 8.21922
8.71974 2.79023 8.23949
6.73475 3.52386 7.43703
7.18188 4.16871 6.81597
5.74167 3.44158 7.50962
9.61647 0.885114 6.33485
10.61 0.813093 6.26278
9.16183 1.51582 6.96524
8.86772 0.113406 5.56386
7.6369 0.10848 5.5589
9.63009 20.7518 4.79947
9.18863 20.1161 4.1641
10.6225 20.835 4.88268
11.4166 1.98646 8.97191
10.4238 2.05919 8.88984
11.8639 1.36495 9.6163
12.171 2.76971 8.21922
13.4017 2.79023 8.23948
11.4167 3.52386 7.43703
11.8639 4.16871 6.81596
10.4237 3.44158 7.50962
14.2985 0.885114 6.33485
15.292 0.813096 6.26279
13.8438 1.51582 6.96524
13.5497 0.113406 5.56386
12.3189 0.10848 5.5589
14.3121 20.7518 4.79947
13.8706 20.1161 4.1641
15.3045 20.835 4.88268
16.0986 1.98646 8.97191
15.1058 2.05919 8.88984
16.5459 1.36495 9.61629
16.853 2.76971 8.21922
18.0837 2.79023 8.23948
16.0987 3.52386 7.43703
16.5459 4.1687 6.81597
15.1057 3.44158 7.50962
0.252485 0.885112 6.33484
1.24606 0.813094 6.26278
18.5258 1.51582 6.96523
18.2317 0.113406 5.56386
17.0009 0.10848 5.5589
0.266101 20.7518 4.79947
18.5526 20.1161 4.1641
1.2585 20.835 4.88268
2.05262 7.33739 8.97191
1.0598 7.41013 8.88984
2.49992 6.71588 9.61629
2.80698 8.12064 8.21922
4.03777 8.14115 8.23949
2.05278 8.87479 7.43703
2.49992 9.51964 6.81597
1.05968 8.79252 7.50962
4.93448 6.23605 6.33483
5.92804 6.16402 6.26277
4.47983 6.86676 6.96523
4.18572 5.46434 5.56385
2.9549 5.45942 5.5589
4.94809 4.69904 4.79947
4.50662 4.06331 4.1641
5.94047 4.78217 4.88268
6.7346 7.33738 8.97191
5.74179 7.41013 8.88984
7.18189 6.71588 9.6163
7.48898 8.12064 8.21922
8.71974 8.14115 8.23949
6.73476 8.87479 7.43703
7.18189 9.51964 6.81597
5.74167 8.79252 7.50962
9.61648 6.23605 6.33483
10.61 6.16402 6.26277
9.16183 6.86676 6.96523
8.86772 5.46434 5.56385
7.6369 5.45942 5.5589
9.63008 4.69904 4.79947
9.18862 4.06331 4.1641
10.6225 4.78216 4.88268
11.4166 7.33739 8.9719
10.4238 7.41013 8.88984
11.8639 6.71588 9.6163
12.171 8.12064 8.21922
13.4017 8.14115 8.23949
11.4167 8.87479 7.43703
11.8639 9.51964 6.81597
10.4237 8.79252 7.50962
14.2985 6.23605 6.33483
15.292 6.16403 6.26277
13.8438 6.86676 6.96523
13.5497 5.46434 5.56385
12.3189 5.45942 5.5589
14.3121 4.69904 4.79947
13.8706 4.06332 4.1641
15.3045 4.78216 4.88267
16.0986 7.33739 8.9719
15.1058 7.41013 8.88984
16.5459 6.71588 9.61629
16.853 8.12064 8.21922
18.0837 8.14115 8.23949
16.0987 8.87479 7.43704
16.5459 9.51964 6.81597
15.1057 8.79252 7.50962
0.25249 6.23605 6.33483
1.24606 6.16403 6.26277
18.5258 6.86676 6.96523
18.2317 5.46434 5.56385
17.0009 5.45942 5.5589
0.266097 4.69904 4.79947
18.5526 4.06332 4.16411
1.2585 4.78216 4.88268
2.05262 12.6883 8.9719
1.05981 12.7611 8.88984
2.49992 12.0668 9.61629
2.80698 13.4716 8.21923
4.03777 13.4921 8.23949
2.05278 14.2257 7.43704
2.49992 14.8706 6.81599
1.05968 14.1435 7.50963
4.93449 11.587 6.33483
5.92804 11.5149 6.26277
4.47984 12.2177 6.96523
4.18572 10.8153 5.56385
2.9549 10.8104 5.5589
4.94808 10.05 4.79947
4.50661 9.41424 4.1641
5.94047 10.1331 4.88268
6.7346 12.6883 8.9719
5.7418 12.7611 8.88984
7.18189 12.0668 9.61629
7.48899 13.4716 8.21923
8.71975 13.4921 8.23949
6.73476 14.2257 7.43704
7.1819 14.8706 6.81599
5.74167 14.1435 7.50963
9.61648 11.587 6.33483
10.61 11.515 6.26277
9.16184 12.2177 6.96523
8.86772 10.8153 5.56385
7.6369 10.8104 5.5589
9.63008 10.05 4.79947
9.18861 9.41424 4.1641
10.6225 10.1331 4.88267
11.4166 12.6883 8.9719
10.4238 12.7611 8.88984
11.8639 12.0668 9.61629
12.171 13.4716 8.21923
13.4017 13.4921 8.23949
11.4168 14.2257 7.43704
11.8639 14.8706 6.81598
10.4237 14.1435 7.50963
14.2985 11.587 6.33483
15.292 11.515 6.26277
13.8438 12.2177 6.96522
13.5497 10.8153 5.56385
12.3189 10.8104 5.5589
14.3121 10.05 4.79947
13.8706 9.41424 4.16411
15.3045 10.1331 4.88267
16.0986 12.6883 8.9719
15.1058 12.7611 8.88984
16.5459 12.0668 9.61629
16.853 13.4716 8.21923
18.0837 13.4921 8.23949
16.0987 14.2257 7.43705
16.5459 14.8706 6.81599
15.1057 14.1435 7.50963
0.252496 11.587 6.33483
1.24607 11.515 6.26277
18.5258 12.2177 6.96522
18.2317 10.8153 5.56385
17.0009 10.8104 5.5589
0.266092 10.05 4.79947
18.5526 9.41425 4.16411
1.25849 10.1331 4.88267
2.05263 18.0392 8.97191
1.05981 18.112 8.88985
2.49993 17.4177 9.61629
2.80698 18.8225 8.21923
4.03777 18.843 8.23949
2.05278 19.5767 7.43704
2.49991 20.2215 6.81598
1.05968 19.4944 7.50963
4.93448 16.9379 6.33484
5.92804 16.8659 6.26278
4.47984 17.5686 6.96524
4.18572 16.1662 5.56386
2.9549 16.1613 5.5589
4.94809 15.4009 4.79947
4.50662 14.7652 4.1641
5.94047 15.484 4.88268
6.73461 18.0392 8.97191
5.7418 18.112 8.88984
7.18191 17.4177 9.61629
7.48899 18.8225 8.21923
8.71975 18.843 8.23949
6.73476 19.5767 7.43704
7.18189 20.2215 6.81598
5.74167 19.4944 7.50963
9.61648 16.9379 6.33484
10.61 16.8659 6.26278
9.16184 17.5686 6.96524
8.86772 16.1662 5.56386
7.6369 16.1613 5.5589
9.63008 15.4009 4.79947
9.18862 14.7652 4.1641
10.6225 15.484 4.88268
11.4166 18.0392 8.9719
10.4238 18.112 8.88984
11.8639 17.4177 9.6163
12.171 18.8225 8.21923
13.4017 18.843 8.23949
11.4167 19.5767 7.43704
11.8639 20.2215 6.81598
10.4237 19.4944 7.50963
14.2985 16.9379 6.33484
15.292 16.8659 6.26278
13.8438 17.5686 6.96524
13.5497 16.1662 5.56386
12.3189 16.1613 5.5589
14.3121 15.4009 4.79947
13.8706 14.7652 4.1641
15.3045 15.484 4.88267
16.0986 18.0392 8.9719
15.1058 18.112 8.88984
16.5459 17.4177 9.61629
16.853 18.8225 8.21923
18.0837 18.843 8.23949
16.0987 19.5767 7.43704
16.5459 20.2215 6.81598
15.1057 19.4944 7.50963
0.252491 16.9379 6.33484
1.24606 16.8659 6.26278
18.5258 17.5686 6.96523
18.2317 16.1662 5.56386
17.0009 16.1613 5.5589
0.266096 15.4009 4.79947
18.5526 14.7652 4.1641
1.2585 15.484 4.88268
2.05263 1.98647 14.3206
1.05981 2.0592 14.2385
2.49993 1.36496 14.965
2.80699 2.76971 13.5679
4.03777 2.79024 13.5882
2.05277 3.52385 12.7857
2.49991 4.1687 12.1646
1.05968 3.44158 12.8583
4.93448 0.885107 11.6835
5.92804 0.813087 11.6115
4.47984 1.51582 12.3139
4.18572 0.113407 10.9126
2.9549 0.108484 10.9076
4.94809 20.7518 10.1482
4.50662 20.1161 9.51279
5.94047 20.835 10.2314
6.73461 1.98646 14.3206
5.7418 2.0592 14.2385
7.18191 1.36496 14.965
7.48899 2.76971 13.5679
8.71975 2.79024 13.5882
6.73475 3.52385 12.7857
7.18188 4.1687 12.1646
5.74167 3.44158 12.8583
9.61648 0.885109 11.6835
10.61 0.813089 11.6115
9.16184 1.51582 12.3139
8.86772 0.113407 10.9126
7.6369 0.108484 10.9076
9.63008 20.7518 10.1482
9.18862 20.1161 9.51279
10.6225 20.835 10.2314
11.4166 1.98647 14.3206
10.4238 2.0592 14.2385
11.8639 1.36496 14.965
12.171 2.76971 13.5679
13.4017 2.79024 13.5882
11.4167 3.52385 12.7857
11.8639 4.1687 12.1646
10.4237 3.44157 12.8583
14.2985 0.885109 11.6835
15.292 0.813092 11.6115
13.8438 1.51582 12.3139
13.5497 0.113407 10.9126
12.3189 0.108484 10.9076
14.3121 20.7518 10.1482
13.8706 20.1161 9.51279
15.3045 20.835 10.2314
16.0986 1.98647 14.3206
15.1058 2.0592 14.2385
16.5459 1.36496 14.965
16.853 2.76971 13.5679
18.0837 2.79024 13.5882
16.0987 3.52385 12.7857
16.5459 4.1687 12.1646
15.1057 3.44158 12.8583
0.252491 0.885107 11.6835
1.24606 0.81309 11.6115
18.5258 1.51582 12.3139
18.2317 0.113407 10.9126
17.0009 0.108484 10.9076
0.266096 20.7518 10.1482
18.5526 20.1161 9.51279
1.2585 20.835 10.2314
2.05262 7.3374 14.3206
1.05981 7.41014 14.2385
2.49992 6.71589 14.965
2.80698 8.12064 13.5679
4.03777 8.14116 13.5882
2.05278 8.87479 12.7857
2.49992 9.51964 12.1647
1.05968 8.79252 12.8583
4.93449 6.23605 11.6835
5.92804 6.16402 11.6115
4.47984 6.86676 12.3139
4.18572 5.46434 10.9125
2.9549 5.45942 10.9076
4.94808 4.69904 10.1482
4.50661 4.06332 9.51279
5.94047 4.78216 10.2314
6.7346 7.33739 14.3206
5.7418 7.41014 14.2385
7.1819 6.71589 14.965
7.48899 8.12064 13.5679
8.71975 8.14116 13.5882
6.73476 8.87479 12.7857
7.18189 9.51964 12.1647
5.74167 8.79252 12.8583
9.61648 6.23605 11.6835
10.61 6.16402 11.6115
9.16184 6.86676 12.3139
8.86772 5.46434 10.9125
7.6369 5.45942 10.9076
9.63008 4.69904 10.1482
9.18861 4.06331 9.51279
10.6225 4.78216 10.2314
11.4166 7.3374 14.3206
10.4238 7.41014 14.2385
11.8639 6.71589 14.965
12.171 8.12064 13.5679
13.4017 8.14116 13.5882
11.4167 8.87479 12.7857
11.8639 9.51964 12.1647
10.4237 8.79251 12.8583
14.2985 6.23605 11.6835
15.292 6.16402 11.6115
13.8438 6.86676 12.3139
13.5497 5.46434 10.9125
12.3189 5.45942 10.9076
14.3121 4.69904 10.1482
13.8706 4.06332 9.51279
15.3045 4.78216 10.2314
16.0986 7.3374 14.3206
15.1058 7.41014 14.2385
16.5459 6.71589 14.965
16.853 8.12064 13.5679
18.0837 8.14116 13.5882
16.0987 8.87479 12.7857
16.5459 9.51964 12.1647
15.1057 8.79252 12.8583
0.252496 6.23605 11.6835
1.24607 6.16402 11.6115
18.5258 6.86676 12.3139
18.2317 5.46434 10.9125
17.0009 5.45942 10.9076
0.266092 4.69904 10.1482
18.5526 4.06332 9.51279
1.25849 4.78216 10.2314
2.05262 12.6883 14.3206
1.05981 12.7611 14.2385
2.49992 12.0668 14.965
2.80699 13.4716 13.5679
4.03778 13.4921 13.5882
2.05278 14.2257 12.7857
2.49992 14.8706 12.1647
1.05969 14.1435 12.8583
4.93449 11.587 11.6835
5.92805 11.5149 11.6115
4.47985 12.2177 12.3139
4.18572 10.8153 10.9125
2.9549 10.8104 10.9076
4.94808 10.05 10.1482
4.5066 9.41424 9.51279
5.94046 10.1331 10.2314
6.73461 12.6883 14.3206
5.7418 12.7611 14.2385
7.1819 12.0668 14.965
7.48899 13.4716 13.5679
8.71975 13.4921 13.5882
6.73476 14.2257 12.7857
7.1819 14.8706 12.1647
5.74168 14.1435 12.8583
9.61649 11.587 11.6835
10.61 11.5149 11.6115
9.16185 12.2177 12.3139
8.86772 10.8153 10.9125
7.6369 10.8104 10.9076
9.63007 10.05 10.1482
9.1886 9.41424 9.51279
10.6225 10.1331 10.2314
11.4166 12.6883 14.3206
10.4238 12.7611 14.2385
11.8639 12.0668 14.965
12.171 13.4716 13.5679
13.4017 13.4921 13.5882
11.4168 14.2257 12.7857
11.8639 14.8706 12.1647
10.4237 14.1435 12.8583
14.2985 11.587 11.6835
15.292 11.5149 11.6115
13.8438 12.2177 12.3139
13.5497 10.8153 10.9125
12.3189 10.8104 10.9076
14.3121 10.05 10.1482
13.8706 9.41425 9.5128
15.3045 10.1331 10.2314
16.0986 12.6883 14.3206
15.1058 12.7611 14.2385
16.5459 12.0668 14.965
16.853 13.4716 13.5679
18.0837 13.4921 13.5882
16.0987 14.2257 12.7857
16.5459 14.8706 12.1647
15.1057 14.1435 12.8583
0.252502 11.587 11.6835
1.24607 11.5149 11.6115
18.5258 12.2177 12.3139
18.2317 10.8153 10.9125
17.0009 10.8104 10.9076
0.266086 10.05 10.1482
18.5526 9.41425 9.5128
1.25849 10.1331 10.2314
2.05263 18.0392 14.3206
1.05982 18.112 14.2385
2.49993 17.4177 14.965
2.80699 18.8225 13.5679
4.03778 18.843 13.5882
2.05278 19.5766 12.7857
2.49991 20.2215 12.1647
1.05968 19.4944 12.8583
4.93449 16.9379 11.6835
5.92804 16.8659 11.6115
4.47985 17.5686 12.3139
4.18572 16.1662 10.9126
2.9549 16.1613 10.9076
4.94808 15.4009 10.1482
4.50661 14.7652 9.51279
5.94047 15.484 10.2314
6.73461 18.0392 14.3206
5.74181 18.112 14.2385
7.18191 17.4177 14.965
7.48899 18.8225 13.5679
8.71975 18.843 13.5882
6.73476 19.5766 12.7857
7.18189 20.2215 12.1647
5.74167 19.4944 12.8583
9.61648 16.9379 11.6835
10.61 16.8659 11.6115
9.16185 17.5686 12.3139
8.86772 16.1662 10.9126
7.6369 16.1613 10.9076
9.63008 15.4009 10.1482
9.18861 14.7652 9.51279
10.6225 15.484 10.2314
11.4166 18.0392 14.3206
10.4238 18.112 14.2385
11.8639 17.4177 14.965
12.171 18.8225 13.5679
13.4017 18.843 13.5882
11.4167 19.5766 12.7857
11.8639 20.2215 12.1647
10.4237 19.4944 12.8583
14.2985 16.9379 11.6835
15.292 16.8659 11.6115
13.8438 17.5686 12.3139
13.5497 16.1662 10.9126
12.3189 16.1613 10.9076
14.3121 15.4009 10.1482
13.8706 14.7652 9.51279
15.3045 15.484 10.2314
16.0986 18.0393 14.3206
15.1058 18.112 14.2385
16.5459 17.4177 14.965
16.853 18.8225 13.5679
18.0837 18.843 13.5882
16.0987 19.5766 12.7857
16.5459 20.2215 12.1647
15.1057 19.4944 12.8583
0.252498 16.9379 11.6835
1.24607 16.8659 11.6115
18.5258 17.5686 12.3139
18.2317 16.1662 10.9126
17.0009 16.1613 10.9076
0.26609 15.4009 10.1482
18.5526 14.7652 9.51279
1.25849 15.484 10.2314
2.05263 1.98646 19.6693
1.05981 2.0592 19.5872
2.49992 1.36496 20.3137
2.80699 2.76971 18.9166
4.03777 2.79023 18.9369
2.05278 3.52386 18.1344
2.49992 4.1687 17.5133
1.05969 3.44158 18.207
4.93448 0.885122 17.0322
5.92803 0.813098 16.9602
4.47983 1.51583 17.6626
4.18572 0.113413 16.2612
2.9549 0.108486 16.2563
4.94809 20.7518 15.4969
4.50662 20.1161 14.8615
5.94048 20.835 15.5801
6.73461 1.98646 19.6693
5.7418 2.0592 19.5872
7.1819 1.36496 20.3137
7.48899 2.76971 18.9166
8.71975 2.79023 18.9369
6.73476 3.52386 18.1344
7.18189 4.1687 17.5133
5.74168 3.44158 18.207
9.61647 0.885124 17.0322
10.61 0.8131 16.9602
9.16183 1.51583 17.6626
8.86772 0.113413 16.2612
7.6369 0.108486 16.2563
9.63009 20.7518 15.4969
9.18862 20.1161 14.8615
10.6225 20.835 15.5801
11.4166 1.98647 19.6693
10.4238 2.0592 19.5872
11.8639 1.36496 20.3137
12.171 2.76971 18.9166
13.4017 2.79023 18.9369
11.4168 3.52386 18.1344
11.8639 4.16871 17.5133
10.4237 3.44158 18.207
14.2985 0.885124 17.0322
15.292 0.813104 16.9602
13.8438 1.51583 17.6626
13.5497 0.113413 16.2612
12.3189 0.108486 16.2563
14.3121 20.7518 15.4969
13.8706 20.1161 14.8615
15.3045 20.835 15.5801
16.0986 1.98647 19.6693
15.1058 2.0592 19.5872
16.5459 1.36496 20.3137
16.853 2.76971 18.9166
18.0837 2.79023 18.9369
16.0987 3.52386 18.1344
16.5459 4.1687 17.5133
15.1057 3.44158 18.207
0.252487 0.885122 17.0322
1.24606 0.813101 16.9602
18.5258 1.51583 17.6626
18.2317 0.113413 16.2612
17.0009 0.108486 16.2563
0.266099 20.7518 15.4969
18.5526 20.1161 14.8615
1.2585 20.835 15.5801
2.05262 7.33739 19.6693
1.0598 7.41014 19.5872
2.49991 6.71589 20.3137
2.80698 8.12064 18.9166
4.03777 8.14115 18.9369
2.05278 8.87479 18.1344
2.49993 9.51964 17.5133
1.05969 8.79252 18.207
4.93448 6.23606 17.0322
5.92804 6.16403 16.9601
4.47984 6.86677 17.6626
4.18572 5.46435 16.2612
2.9549 5.45942 16.2563
4.94809 4.69904 15.4969
4.50662 4.06331 14.8615
5.94047 4.78217 15.5801
6.7346 7.33739 19.6693
5.74179 7.41014 19.5872
7.18189 6.71589 20.3137
7.48899 8.12064 18.9166
8.71975 8.14115 18.9369
6.73476 8.87479 18.1344
7.1819 9.51964 17.5133
5.74168 8.79252 18.207
9.61648 6.23606 17.0322
10.61 6.16403 16.9601
9.16184 6.86677 17.6626
8.86772 5.46435 16.2612
7.6369 5.45942 16.2563
9.63008 4.69904 15.4968
9.18862 4.06331 14.8615
10.6225 4.78217 15.5801
11.4166 7.33739 19.6693
10.4238 7.41014 19.5872
11.8639 6.71588 20.3137
12.171 8.12064 18.9166
13.4017 8.14115 18.9369
11.4168 8.87479 18.1344
11.8639 9.51964 17.5133
10.4237 8.79252 18.207
14.2985 6.23606 17.0322
15.292 6.16403 16.9601
13.8438 6.86677 17.6626
13.5497 5.46435 16.2612
12.3189 5.45942 16.2563
14.3121 4.69904 15.4968
13.8706 4.06331 14.8615
15.3045 4.78216 15.5801
16.0986 7.3374 19.6693
15.1058 7.41014 19.5872
16.5459 6.71589 20.3137
16.853 8.12064 18.9166
18.0837 8.14115 18.9369
16.0988 8.87479 18.1344
16.5459 9.51964 17.5133
15.1057 8.79252 18.207
0.252491 6.23606 17.0322
1.24606 6.16403 16.9601
18.5258 6.86677 17.6626
18.2317 5.46435 16.2612
17.0009 5.45942 16.2563
0.266095 4.69904 15.4969
18.5526 4.06331 14.8615
1.2585 4.78216 15.5801
2.05262 12.6883 19.6693
1.0598 12.7611 19.5872
2.49991 12.0668 20.3137
2.80699 13.4716 18.9166
4.03778 13.4921 18.9369
2.05279 14.2257 18.1344
2.49993 14.8706 17.5134
1.05969 14.1435 18.207
4.93449 11.587 17.0322
5.92804 11.515 16.9601
4.47985 12.2177 17.6626
4.18572 10.8153 16.2612
2.9549 10.8104 16.2563
4.94808 10.05 15.4968
4.50661 9.41424 14.8615
5.94047 10.1331 15.5801
6.7346 12.6883 19.6693
5.7418 12.7611 19.5872
7.18189 12.0668 20.3137
7.48899 13.4716 18.9166
8.71975 13.4921 18.9369
6.73477 14.2257 18.1344
7.18191 14.8706 17.5134
5.74168 14.1435 18.207
9.61648 11.587 17.0322
10.61 11.515 16.9601
9.16185 12.2177 17.6626
8.86772 10.8153 16.2612
7.6369 10.8104 16.2563
9.63008 10.05 15.4968
9.18861 9.41424 14.8615
10.6225 10.1331 15.5801
11.4166 12.6883 19.6693
10.4238 12.7611 19.5872
11.8639 12.0668 20.3137
12.171 13.4716 18.9166
13.4017 13.4921 18.9369
11.4168 14.2257 18.1344
11.8639 14.8706 17.5134
10.4237 14.1435 18.207
14.2985 11.587 17.0322
15.292 11.515 16.9601
13.8438 12.2177 17.6626
13.5497 10.8153 16.2612
12.3189 10.8104 16.2563
14.3121 10.05 15.4968
13.8706 9.41424 14.8615
15.3045 10.1331 15.5801
16.0986 12.6883 19.6693
15.1058 12.7611 19.5872
16.5459 12.0668 20.3137
16.853 13.4716 18.9166
18.0837 13.4921 18.9369
16.0988 14.2257 18.1344
16.5459 14.8706 17.5134
15.1057 14.1435 18.207
0.252497 11.587 17.0322
1.24607 11.515 16.9601
18.5258 12.2177 17.6626
18.2317 10.8153 16.2612
17.0009 10.8104 16.2563
0.26609 10.05 15.4968
18.5526 9.41424 14.8615
1.25849 10.1331 15.5801
2.05263 18.0392 19.6693
1.05981 18.112 19.5872
2.49992 17.4177 20.3137
2.80699 18.8225 18.9166
4.03778 18.843 18.9369
2.05278 19.5767 18.1344
2.49992 20.2215 17.5134
1.05969 19.4944 18.207
4.93448 16.9379 17.0322
5.92804 16.8659 16.9601
4.47984 17.5686 17.6626
4.18572 16.1662 16.2612
2.9549 16.1613 16.2563
4.94809 15.4009 15.4969
4.50661 14.7652 14.8615
5.94047 15.484 15.5801
6.73461 18.0392 19.6693
5.7418 18.112 19.5872
7.1819 17.4177 20.3137
7.48899 18.8225 18.9166
8.71975 18.843 18.9369
6.73476 19.5767 18.1344
7.1819 20.2215 17.5134
5.74168 19.4944 18.207
9.61648 16.9379 17.0322
10.61 16.8659 16.9602
9.16184 17.5686 17.6626
8.86772 16.1662 16.2612
7.6369 16.1613 16.2563
9.63008 15.4009 15.4969
9.18862 14.7652 14.8615
10.6225 15.484 15.5801
11.4166 18.0392 19.6693
10.4238 18.112 19.5872
11.8639 17.4177 20.3137
12.171 18.8225 18.9166
13.4017 18.843 18.9369
11.4168 19.5767 18.1344
11.8639 20.2215 17.5134
10.4237 19.4944 18.207
14.2985 16.9379 17.0322
15.292 16.8659 16.9602
13.8438 17.5686 17.6626
13.5497 16.1662 16.2612
12.3189 16.1613 16.2563
14.3121 15.4009 15.4968
13.8706 14.7652 14.8615
15.3045 15.484 15.5801
16.0986 18.0392 19.6693
15.1058 18.112 19.5872
16.5459 17.4177 20.3137
16.853 18.8225 18.9166
18.0837 18.843 18.9369
16.0988 19.5767 18.1344
16.5459 20.2215 17.5134
15.1057 19.4944 18.207
0.252493 16.9379 17.0322
1.24606 16.8659 16.9602
18.5258 17.5686 17.6626
18.2317 16.1662 16.2612
17.0009 16.1613 16.2563
0.266094 15.4009 15.4969
18.5526 14.7652 14.8615
1.25849 15.484 15.5801
